# .PCD v0.7 - Point Cloud Data file format
VERSION 0.7
FIELDS x y z rgba
SIZE 4 4 4 4
TYPE F F F U
COUNT 1 1 1 1
WIDTH 1100
HEIGHT 1
VIEWPOINT 0 0 0 1 0 0 0
POINTS 1100
DATA ascii
0.014071502 -0.065942489 1.054023 4278452997
0.025018182 -0.066094145 1.0565414 4278518787
0.034426805 -0.069266096 1.0581026 4278650119
0.043155733 -0.069455698 1.0567421 4278715141
0.054230575 -0.069612741 1.0592608 4278518531
0.78458786 -0.065482527 1.0556653 4278780933
0.79161805 -0.065813981 1.0542489 4278453506
0.80461043 -0.063982822 1.0530735 4278649602
0.81382555 -0.060424458 1.0534097 4278584323
-0.030680003 -0.055393863 1.0510697 4281213235
-0.024543937 -0.055563372 1.0536262 4279702555
-0.015838597 -0.05515641 1.0596089 4280228896
-0.0040800306 -0.055668835 1.0559335 4278780932
0.0068320627 -0.055834003 1.0589534 4278780933
0.79584885 -0.053495396 1.0552688 4278846984
0.80636197 -0.054089952 1.0570601 4278846722
0.81567943 -0.051134259 1.0564255 4279436290
-0.02266424 -0.048320264 1.0548751 4279637016
-0.01511116 -0.045007214 1.0558224 4278649861
-0.0078055817 -0.048780441 1.0585448 4278780934
0.79985517 -0.040636368 1.0573491 4278650630
0.80905479 -0.045651756 1.0547731 4278584581
0.81696057 -0.043136977 1.0554445 4278715397
0.82333457 -0.041393045 1.0520838 4278978057
0.81881189 -0.035741426 1.0554785 4278715651
0.82659042 -0.033490203 1.0555913 4278715659
0.83494306 -0.032596994 1.0529259 4278584838
0.82622337 -0.025154442 1.0564767 4278715148
0.83390474 -0.023026966 1.0548868 4278518794
0.8435607 -0.022779327 1.0515941 4278649860
0.82733041 -0.018211083 1.0585215 4278715143
0.83643961 -0.017933011 1.0537126 4278584842
0.84417176 -0.013848837 1.0533772 4278715145
0.85364276 -0.013027648 1.0508809 4278846468
0.83871609 -0.0049297493 1.0548902 4278977803
0.84697253 -0.0064482363 1.0568938 4278715653
0.85539842 -0.0041472074 1.0556746 4278650635
0.84687066 0.0012597773 1.0566517 4278715653
0.85445273 0.0024296027 1.0525603 4278650376
0.86440688 0.0060279802 1.051387 4278846466
0.85321015 0.013531435 1.0570364 4278715912
0.86812907 0.01555917 1.0569515 4278781189
0.87050903 0.015937913 1.0540322 4278781188
0.86674964 0.02259637 1.054561 4278781444
0.87614042 0.025765028 1.0551629 4278846725
0.86938262 0.030640161 1.055747 4278912775
0.87482482 0.034150835 1.0562139 4278912773
0.88915855 0.034797184 1.0569026 4278912771
0.87397444 0.04068416 1.0552758 4278978060
0.88527352 0.043572012 1.0549471 4278781707
0.89450634 0.045875557 1.0535094 4278912774
0.88456142 0.051047385 1.0558798 4279241229
0.89613867 0.054731693 1.0547595 4278847750
0.90639973 0.053974275 1.0513622 4278978821
0.88906825 0.062196985 1.0572695 4279240714
0.89739496 0.063254312 1.054065 4278913291
0.90585268 0.065202564 1.0525074 4279174922
0.89611197 0.072638199 1.0573009 4278913799
0.90460509 0.075696811 1.0542681 4279241245
0.91474789 0.075540125 1.0548695 4281345843
0.90109432 0.081623964 1.0585781 4279308570
0.91144133 0.084551066 1.0547223 4282135871
0.92381108 0.083108902 1.0534489 4281282636
0.91223139 0.092225768 1.0597984 4279504151
0.92684042 0.092734113 1.0536581 4283779665
0.9275521 0.10265131 1.0550189 4284308323
0.93125963 0.11277862 1.0566702 4286937479
0.94053388 0.11349342 1.0548098 4288384921
0.94389725 0.12347624 1.0524067 4290621379
0.946257 0.13390443 1.0564277 4292531931
0.95254934 0.14446409 1.0582076 4294108907
-0.14053424 0.19368687 1.0503765 4287397482
-0.14207324 0.20210168 1.0516694 4283184440
-0.17530257 0.21514177 1.0517061 4293451503
-0.15388703 0.21851407 1.0564598 4287267220
-0.14537881 0.21173561 1.0589112 4283714362
-0.18472794 0.22347556 1.0515023 4291012019
-0.17729434 0.22508156 1.0563655 4290155975
-0.15546115 0.22706077 1.0577416 4289240740
-0.13677801 0.22553875 1.0554606 4291542940
-0.18736704 0.23390199 1.0581524 4290423760
-0.16394562 0.23380315 1.055293 4291281615
-0.14424787 0.23310849 1.0505278 4288713874
-0.13751554 0.23473562 1.0570178 4290950306
-0.16580734 0.24407987 1.0537229 4292598756
-0.15401109 0.24410048 1.053862 4289437860
-0.14655359 0.24772461 1.0567071 4286611067
-0.27890632 0.25443202 1.0540073 4288250753
-0.19587652 0.25005156 1.052647 4294438392
-0.17430873 0.25670731 1.0514508 4292401893
-0.16217466 0.25899714 1.0503141 4294045427
-0.1558615 0.25588673 1.0572543 4291742674
0.88324809 0.25959671 1.0583082 4290752177
0.8957355 0.25271058 1.058973 4293649637
0.90475637 0.25454631 1.0567838 4293583588
0.91377723 0.25638208 1.0545946 4292990682
0.94935137 0.25506324 1.0599382 4293779172
0.95922422 0.25554904 1.058375 4293121499
0.97102904 0.25673318 1.0595281 4290750133
0.98093051 0.25722039 1.0579603 4286279064
0.99083191 0.2577076 1.0563926 4286350498
-0.44601658 0.2680839 1.0519383 4287982941
-0.43562698 0.26648894 1.0510269 4286205802
-0.4271611 0.26626983 1.0557153 4283779460
-0.28923586 0.26030171 1.0573417 4290095774
-0.27958569 0.26876122 1.0549048 4287129175
-0.26947743 0.26170811 1.052472 4286934123
-0.20587631 0.26730451 1.052121 4292072686
-0.17616235 0.26620471 1.0575042 4292400870
-0.16405483 0.26675928 1.0554795 4291414233
0.88111258 0.26874119 1.0571767 4290883500
0.89572906 0.2620081 1.0537479 4293255655
0.92666411 0.26313815 1.0592455 4294307314
0.93452978 0.26593283 1.0577917 4293450462
0.94446003 0.26338145 1.0534061 4293120975
0.95426613 0.26386398 1.0518534 4290947503
-0.41474795 0.27344847 1.0506551 4290466636
-0.40537682 0.27254689 1.0525323 4289093203
-0.39600569 0.27164528 1.0544095 4288903769
-0.38663456 0.2707437 1.0562866 4291411116
-0.27043039 0.27734041 1.0544345 4287657321
-0.2601361 0.27924195 1.0570172 4285289036
-0.25104895 0.27305618 1.0534177 4287855501
-0.208032 0.27754435 1.0567712 4294373366
-0.16330773 0.27539897 1.0572608 4291743966
0.047095347 0.27805766 1.0592227 4291673020
0.064969063 0.27586746 1.0518444 4291280824
0.10675996 0.27520245 1.0594163 4290819248
0.11415677 0.27903691 1.0592022 4291674040
0.14892311 0.27740747 1.0566335 4289832105
0.17338865 0.27416939 1.0585887 4290163388
0.18997487 0.27997997 1.0565822 4288185747
0.20301515 0.27968079 1.0572091 4288126875
0.21044709 0.2797893 1.0572069 4290423716
0.88029498 0.27836439 1.0577605 4282280578
0.90568161 0.27694184 1.0575056 4294768886
0.91588902 0.27381438 1.0545495 4294372334
0.9205811 0.2708061 1.0506896 4294241011
0.93059814 0.2772187 1.0552198 4290600622
-0.25040084 0.28565684 1.0525664 4283318336
-0.24305831 0.28155738 1.0505124 4288973462
-0.21779391 0.28539431 1.0540767 4291742418
-0.19508445 0.28778732 1.051093 4291412687
-0.18535416 0.28259394 1.0578001 4291808478
0.046685115 0.28415862 1.0548691 4291541943
0.054097723 0.28426683 1.0548668 4290413957
0.076107591 0.28391528 1.0528952 4290950844
0.083752781 0.28615975 1.0555764 4291411130
0.093617909 0.28582829 1.0564344 4291344566
0.10524247 0.28497261 1.0573363 4291147443
0.11488071 0.2837804 1.0553935 4291015596
0.12511295 0.28385574 1.0577977 4290620331
0.13601905 0.28613606 1.0568069 4290822063
0.14345098 0.28624457 1.0568047 4287267477
0.15565258 0.28491741 1.0538716 4290751918
0.16466719 0.28363949 1.0517063 4289503653
0.17447348 0.28340068 1.0527928 4289631897
0.18528748 0.28410044 1.0536997 4290029743
0.19526041 0.28293818 1.0560182 4289302154
0.2057683 0.28614509 1.0538383 4288970371
0.21777038 0.28732979 1.056782 4289439909
0.22556405 0.28405365 1.057974 4290490809
0.23569703 0.28691858 1.0548116 4289241758
0.24817067 0.28844669 1.0587378 4292134079
0.25423819 0.2871893 1.054806 4287661689
0.26572239 0.2876935 1.0557849 4288777097
0.27728036 0.28447229 1.0569758 4290028438
0.28388864 0.28762227 1.0547969 4289767085
0.29708061 0.28601003 1.056899 4289567131
0.30700815 0.28490639 1.0569668 4290555039
0.31353909 0.28805521 1.0547879 4291539885
0.32356125 0.28736037 1.0523286 4288581265
0.33381796 0.28372571 1.0560464 4290356393
0.34569016 0.28604686 1.0549191 4290027934
0.35483435 0.28527793 1.0559692 4290159266
0.37384111 0.28960875 1.0567346 4291475385
0.87815511 0.28752759 1.0566266 4281014274
0.89999449 0.28625688 1.0569186 4291868618
0.91222429 0.2810379 1.0549814 4293321440
-0.43638098 0.29984012 1.0579433 4288621884
-0.392481 0.29999718 1.0504308 4290877055
-0.24172743 0.29484892 1.057838 4286208843
-0.218086 0.29489088 1.0562423 4292266483
-0.20490754 0.29555038 1.0525949 4290821325
-0.19852661 0.29798046 1.0572839 4291413721
-0.1818454 0.29578686 1.0564454 4290688197
-0.17548016 0.29503137 1.0521309 4290357437
-0.16941439 0.29014814 1.059423 4291082698
0.046351198 0.29052952 1.0515019 4291609281
0.076003738 0.29642391 1.0513964 4289634719
0.086047783 0.29390842 1.0551882 4291673275
0.096101761 0.29365087 1.0533991 4291410619
0.1061967 0.29370427 1.052598 4290555064
0.11329024 0.29254541 1.0544273 4290560177
0.12251377 0.29423264 1.0529835 4288776045
0.13365349 0.29747987 1.0558671 4290160547
0.14395368 0.29639405 1.055052 4290556854
0.15255108 0.29758841 1.0571926 4291476156
0.16416216 0.29830626 1.056599 4291410882
0.17462358 0.29882228 1.0569205 4292333526
0.18759425 0.29890972 1.0542123 4289439403
0.19683009 0.29988474 1.0565567 4290623158
0.2530925 0.29354835 1.051439 4290030237
0.26785973 0.293764 1.0514345 4290095540
0.27636769 0.29492667 1.0543777 4292198840
0.28262696 0.29397961 1.05143 4288248960
0.29779798 0.29454732 1.0524073 4290884769
0.34730524 0.29788956 1.0586376 4291410632
0.36739093 0.29018754 1.0587014 4290160046
0.37861398 0.29538122 1.0514008 4290027926
0.38280371 0.2907491 1.0596793 4291344570
0.90004408 0.29593 1.0569754 4292329662
-0.55151987 0.30448779 1.0596814 4292721026
-0.51874971 0.3099024 1.0586672 4289624431
-0.50784886 0.30812612 1.0576739 4288302931
-0.49545121 0.30603835 1.0557669 4287052127
-0.48459128 0.3035287 1.0567625 4282541490
-0.47465608 0.30301702 1.0583456 4282344103
-0.46376565 0.30697143 1.0541666 4284831892
-0.45425645 0.30797064 1.0523376 4287183456
-0.44498685 0.30729234 1.0541785 4287309893
-0.43480891 0.30853587 1.0550456 4286581517
-0.42723712 0.30512896 1.057016 4285727496
-0.38273755 0.30936328 1.0537899 4290089306
-0.3733381 0.30845895 1.0556726 4292132783
-0.36319271 0.30674306 1.054736 4293582815
-0.35382158 0.30584148 1.0566131 4294110445
-0.34445041 0.3049399 1.0584903 4294307826
-0.33441824 0.30323488 1.0575309 4294308338
-0.32507539 0.30233601 1.0594023 4293913069
-0.3036533 0.30770865 1.0540344 4293650150
-0.29493213 0.30763829 1.0587455 4293320159
-0.24296449 0.30307794 1.0530238 4286077005
-0.2334321 0.30121833 1.0522847 4289301376
-0.22570094 0.30625045 1.0554307 4288183154
-0.21514802 0.30365121 1.0550787 4291480030
-0.20842706 0.3058219 1.0587802 4291742936
-0.19017443 0.30305779 1.0527947 4292136164
-0.18378168 0.30385727 1.0567298 4289834435
0.047287479 0.30888599 1.0599481 4293253590
0.054289784 0.3042888 1.0579171 4293055962
0.066084713 0.30699718 1.0591021 4290227367
0.077720657 0.3088944 1.0548811 4290294959
0.086190253 0.3081696 1.0546494 4290161829
0.095491558 0.30884421 1.0553327 4288450198
0.10330732 0.30803502 1.056416 4289374118
0.1133109 0.30602595 1.0551755 4289700252
0.12537301 0.30830362 1.0560304 4289440681
0.13643914 0.30769014 1.0566595 4290161314
0.14481761 0.3076826 1.057586 4288780701
0.15486816 0.30702928 1.0586329 4289833635
0.16590264 0.30523363 1.0550277 4288977566
0.17347616 0.30693489 1.0561438 4290293941
0.18762985 0.30556941 1.0534136 4291214527
0.19730613 0.307796 1.0570388 4290687673
0.20540959 0.30346683 1.0556935 4290687669
0.21440482 0.30510622 1.0546057 4290819251
0.22327285 0.30434355 1.0552926 4291674562
0.23379581 0.30493459 1.0551728 4291214527
0.24522784 0.30730096 1.0533662 4290952893
0.25588727 0.30614883 1.0583963 4290819253
0.26344046 0.30452913 1.0555692 4291214011
0.27477685 0.30342147 1.0578808 4291872198
0.28610379 0.30392265 1.0565405 4291148990
0.29708189 0.30704033 1.0563557 4291939017
0.3039301 0.30636203 1.0532312 4290426302
0.31656945 0.30518407 1.0581501 4291543493
0.32632771 0.30661321 1.0578012 4291675328
0.33627564 0.30568287 1.0585184 4291543747
0.34673759 0.30637351 1.0564851 4292728787
0.35428095 0.30580705 1.0549912 4291410880
0.36347795 0.30687875 1.0564623 4292004302
0.37295985 0.30762076 1.0569971 4291084740
0.38215834 0.30838436 1.0574646 4290950075
0.39298999 0.30258116 1.0596448 4291610060
0.4020485 0.30302688 1.0582106 4291608006
0.41145074 0.30438355 1.0597367 4289966783
0.45802209 0.30876121 1.0593977 4294044395
0.90009367 0.30560306 1.057032 4291416267
-0.6934433 0.31362101 1.0587686 4293123035
-0.68132055 0.31162232 1.0572132 4293254110
-0.65709788 0.31812888 1.0544429 4293056731
-0.64721531 0.3171781 1.0564225 4293320161
-0.63584018 0.31543055 1.0557179 4293386206
-0.62598598 0.31448248 1.0576918 4293517282
-0.61613172 0.31353441 1.0596657 4293254622
-0.58922601 0.31804696 1.0505068 4292523136
-0.56844366 0.31536546 1.0516913 4292325501
-0.55874044 0.31443191 1.053635 4292326020
-0.54903722 0.31349838 1.0555787 4292654469
-0.53809965 0.31176403 1.0547912 4292326786
-0.52842468 0.31083322 1.0567292 4292193665
-0.50434798 0.31621033 1.0508206 4288567127
-0.49471146 0.31314194 1.0523565 4288161575
-0.48858136 0.31570521 1.0568547 4285358776
-0.47438562 0.31210792 1.0538363 4284768167
-0.46420673 0.31503612 1.0593729 4284576715
-0.4469853 0.31354913 1.0592223 4290128179
-0.43043944 0.31580207 1.0568256 4285727492
-0.42706081 0.31743267 1.0574481 4284285961
-0.39213699 0.3102676 1.0519069 4284432470
-0.28310668 0.31385836 1.0516735 4292990425
-0.27388841 0.31297147 1.0535201 4292332490
-0.264974 0.31264555 1.0572788 4291936705
-0.25444999 0.31497866 1.0536909 4291542966
-0.24526003 0.31409451 1.0555317 4290422689
-0.23578432 0.31341776 1.0571501 4289831054
-0.22562411 0.31525621 1.0527874 4288121196
-0.21649075 0.31437752 1.0546169 4287132805
-0.20716909 0.31292969 1.0545143 4289177026
-0.19891837 0.3121587 1.0556405 4291609301
-0.16540161 0.31646475 1.0554851 4293782258
-0.15104859 0.31455114 1.0563703 4294638073
-0.14192882 0.31281838 1.0552469 4294703355
-0.13288316 0.31137782 1.0550921 4294901245
-0.1239074 0.31108454 1.0588568 4294901501
-0.11377215 0.31871575 1.0574219 4294835709
0.035911717 0.31405038 1.0585262 4293846767
0.043301258 0.31586969 1.0555599 4293714664
0.054297633 0.31304854 1.056968 4291016373
0.063870519 0.31289309 1.0565274 4290884251
0.073237151 0.31256193 1.0533327 4290361012
0.08476337 0.31420591 1.0548768 4291016121
0.093237311 0.31549799 1.0533079 4290556850
0.10510775 0.31450582 1.0537859 4290490286
0.11603717 0.31453487 1.0553974 4290226606
0.12659156 0.31505632 1.0534523 4288780953
0.13631254 0.31599987 1.0530525 4290754225
0.14649232 0.31554037 1.0538321 4288847516
0.15528524 0.31607527 1.0536168 4289767591
0.1639083 0.31560022 1.0545708 4289897890
0.17503911 0.31575963 1.0535454 4289241761
0.1858803 0.31450951 1.0560594 4289569705
0.19545838 0.31475061 1.0562878 4290293160
0.20435888 0.31511694 1.0559627 4288978590
0.21289667 0.31485224 1.0550568 4290820018
0.22480309 0.31422129 1.0552455 4289043358
0.23703425 0.31423962 1.0557044 4289106832
0.24563551 0.31513941 1.0559764 4289833387
0.25412369 0.31384903 1.0545714 4290097064
0.26503956 0.31274185 1.0555762 4289438374
0.27570772 0.31372625 1.0563631 4289307813
0.28534287 0.3130841 1.0555968 4290030506
0.29392239 0.31439421 1.0552378 4290555825
0.30617085 0.31608674 1.0551376 4290886067
0.31415796 0.31352225 1.0555336 4291083969
0.32289565 0.31529614 1.056602 4291478216
0.33271325 0.31478065 1.0569534 4291280062
0.34240353 0.3131876 1.0558188 4291148480
0.35111868 0.31439298 1.0554872 4291741372
0.36146691 0.31445438 1.0548621 4292201396
0.37057698 0.31460306 1.0542487 4293521121
0.38023978 0.31532964 1.0555745 4293714656
0.39115161 0.31327194 1.0561998 4292662992
0.40860477 0.31670272 1.0568268 4293453020
0.41684318 0.31504923 1.0567161 4293584100
0.42914635 0.31449014 1.0566992 4293913580
0.43799496 0.31676897 1.0575328 4292595151
0.44762501 0.3160148 1.0557828 4292467153
0.4567312 0.31646287 1.054341 4291870910
0.46669382 0.31849161 1.0577872 4293060307
0.47639012 0.31989184 1.0592661 4294441200
0.53316122 0.31484258 1.0555402 4294704637
0.54387981 0.31715804 1.0598729 4294901500
0.66629797 0.31666872 1.0577705 4294835965
0.67563176 0.31682104 1.0571419 4294900989
0.68496549 0.31697339 1.0565134 4294901501
0.78409952 0.31962854 1.0567062 4294901502
0.79965872 0.31823406 1.05935 4294703867
-0.68837959 0.32179165 1.0511599 4293122008
-0.6768629 0.32003048 1.0504837 4292991192
-0.61059904 0.32101265 1.0501968 4292922052
-0.60082978 0.32007277 1.0521537 4292587920
-0.50213081 0.32034186 1.0507784 4284887323
-0.43498874 0.32527193 1.0552832 4284876299
-0.42753547 0.32687914 1.0579368 4281929747
-0.37133521 0.32827058 1.0583779 4286929985
-0.36701891 0.32769093 1.0556822 4288709752
-0.35648307 0.32472938 1.0573585 4288709753
-0.34507763 0.32469869 1.0568655 4289566867
-0.22500913 0.32048681 1.0540428 4289963921
-0.21616915 0.3293539 1.0555301 4291411644
-0.20596397 0.32589883 1.053001 4291017926
-0.1952506 0.32791895 1.0563881 4292069830
-0.16227791 0.32861403 1.0584116 4293256432
-0.15666887 0.32330018 1.0527115 4294242548
-0.1484983 0.32281399 1.053128 4294440183
-0.13605613 0.32715911 1.0553331 4294506231
-0.12519416 0.32810667 1.0572882 4294505463
-0.11426938 0.32905519 1.0592432 4294505206
-0.103049 0.32921904 1.0592399 4294504949
-0.095185071 0.32675415 1.0564419 4294571768
-0.085095361 0.32590842 1.0558586 4294440183
-0.075310171 0.32708368 1.0551742 4294571511
-0.066928566 0.32601172 1.0547172 4294505975
-0.056879062 0.32488951 1.0564944 4294374390
-0.045198612 0.32585555 1.0537751 4293978610
-0.03385479 0.32676661 1.0561013 4293385707
-0.023839602 0.32642311 1.0569849 4293779436
-0.01389194 0.32696858 1.0549985 4294176755
-0.0056163245 0.32623824 1.0555056 4294242036
0.0042729354 0.32629734 1.0538578 4294242292
0.014408756 0.32603371 1.0552597 4294110451
0.024774177 0.32491305 1.0556016 4293912818
0.035442013 0.32437608 1.0543338 4294373111
0.046494525 0.32555509 1.056694 4292530629
0.055243876 0.32311022 1.0554805 4291015343
0.066716813 0.32063675 1.0509579 4291739595
0.074459575 0.32179642 1.0504591 4289898402
0.096484207 0.32254326 1.0522254 4291806925
0.11019509 0.32403138 1.0507274 4290356910
0.1232927 0.3200509 1.0534661 4290230970
0.13691816 0.32226539 1.0510511 4289963684
0.14790453 0.32227379 1.0508115 4288781726
0.15612341 0.32322872 1.0505769 4289771950
0.1676994 0.32686597 1.0510688 4290487987
0.17573789 0.32389861 1.0538679 4292402395
0.18376914 0.32124418 1.0576818 4292660177
0.19369078 0.32059243 1.0542265 4290030505
0.20583016 0.32144332 1.0536368 4290293165
0.21798337 0.32180506 1.0513365 4290159779
0.22484711 0.32284635 1.0532562 4290818228
0.23557222 0.32300568 1.0506861 4290885806
0.24560347 0.32392123 1.0506265 4290159277
0.2581223 0.32083821 1.0569556 4291281071
0.2655814 0.32226568 1.0538039 4290489005
0.27746427 0.3215062 1.0520167 4292531158
0.28569961 0.32286572 1.0516369 4289899437
0.29501554 0.32452375 1.0519016 4290885051
0.30605167 0.32633138 1.0555137 4292595914
0.31391937 0.32359642 1.0543554 4291346617
0.3253119 0.32458842 1.0528028 4292728020
0.33735389 0.32663834 1.0544691 4292792789
0.34542313 0.32224965 1.0554727 4292792785
0.35671267 0.32512864 1.0575783 4293715169
0.36648744 0.32308933 1.0565199 4293056470
0.37658927 0.32337853 1.0567925 4293320413
0.38861552 0.32403255 1.0525383 4293582302
0.39772561 0.3241812 1.0519248 4292398288
0.40850404 0.32254389 1.0522866 4292530643
0.41852659 0.32693231 1.0586234 4292331207
0.43775484 0.32414958 1.0551004 4292398295
0.44714537 0.32524645 1.0556226 4294045421
0.45673531 0.3266705 1.0571176 4294901497
0.50300908 0.32805419 1.0556569 4292069064
0.5314849 0.32260284 1.0505426 4294901502
0.55267799 0.32703033 1.058239 4294901502
0.5627653 0.32844979 1.059656 4294901502
0.64375103 0.325894 1.0571241 4294901502
0.6527195 0.32728541 1.0558771 4294901502
0.66684419 0.32600808 1.0532688 4294901501
0.67169768 0.32494798 1.0576255 4294901502
0.68457353 0.32761878 1.0533595 4294901502
0.69122148 0.32525975 1.0570431 4294901502
0.70229089 0.3223983 1.0571058 4294901502
0.71425956 0.32451963 1.0544353 4294901502
0.72086996 0.32282826 1.0544058 4294901502
0.73147726 0.32700545 1.0553478 4294901502
0.74301195 0.3243953 1.056267 4294901501
0.75165856 0.32523617 1.0535663 4294835965
0.76083606 0.32636875 1.0517409 4294901502
0.77354825 0.32557207 1.0541856 4294769916
0.78380394 0.32606778 1.0543768 4294901245
0.79405051 0.3254118 1.0544994 4294835708
0.80355626 0.32670555 1.0531218 4294835708
0.81506753 0.32206902 1.0580435 4294704124
0.82513368 0.32304078 1.0552363 4294901502
0.83522749 0.32570353 1.0567591 4294704123
0.84773767 0.32728925 1.0551373 4294703866
0.85575116 0.32538322 1.0534049 4294901502
0.86876613 0.3276954 1.0573771 4294901501
0.88031703 0.32915536 1.0587655 4294306029
-0.72330302 0.33795202 1.0577173 4289766561
-0.71191293 0.33734712 1.0559429 4291478458
-0.70255452 0.33714965 1.0569469 4291543489
-0.69316971 0.33794761 1.0570366 4292003265
-0.68383777 0.33675471 1.0589547 4291608512
-0.67174488 0.33637857 1.0581884 4291937728
-0.66326219 0.33595598 1.0581657 4291543740
-0.65393263 0.33575913 1.0591666 4291805632
-0.59353673 0.3335126 1.0576555 4290945142
-0.58428407 0.33331734 1.0586481 4291076992
-0.5750314 0.3331221 1.0596406 4291012204
-0.50618511 0.33982518 1.0575248 4288839245
-0.49609753 0.33935016 1.0566125 4287982390
-0.43456724 0.33549771 1.0523933 4280883741
-0.42690197 0.33679911 1.0571738 4281935919
-0.41614366 0.33617079 1.0573676 4286666832
-0.40619886 0.33868533 1.0532895 4288116576
-0.39428541 0.33715394 1.0564644 4288050530
-0.38439083 0.33496261 1.0561501 4289034611
-0.37356356 0.3346234 1.054287 4290287743
-0.36252704 0.33367288 1.0555863 4289432949
-0.35385093 0.33318895 1.0556443 4289170292
-0.34478784 0.33258116 1.0544916 4288777085
-0.33526212 0.33106887 1.0533463 4290488225
-0.32455924 0.33708414 1.0552762 4293253842
-0.31500271 0.33589855 1.055243 4293515221
-0.30614907 0.33706793 1.0546803 4293384146
-0.29380319 0.33650684 1.0574558 4293253341
-0.2816354 0.33320898 1.0550531 4292728029
-0.27237105 0.3332004 1.0564206 4292267734
-0.26415724 0.33605266 1.0550704 4292266707
-0.25276965 0.33859017 1.0519606 4291938769
-0.24406946 0.33830541 1.0542808 4291872723
-0.23573922 0.338287 1.0556481 4292135893
-0.22645783 0.3352724 1.057523 4291939283
-0.21583077 0.33815739 1.0541075 4292072156
-0.20665863 0.33768257 1.0531003 4292071640
-0.19587758 0.33639082 1.0532761 4292333262
-0.18701285 0.33594596 1.0564308 4292070090
-0.17376074 0.33472517 1.0534567 4291739609
-0.16536683 0.33691159 1.0542321 4292137696
-0.15288967 0.33538309 1.0528784 4293519344
-0.14440392 0.33580518 1.0569577 4293782257
-0.13557681 0.3342489 1.054364 4294111476
-0.12456351 0.33355767 1.0519705 4294571256
-0.1171509 0.33366591 1.0519682 4294505719
-0.10591303 0.33342588 1.0509863 4294439670
-0.094694488 0.33318552 1.0500042 4294308342
-0.08730121 0.3332935 1.050002 4294439160
-0.043206897 0.33009285 1.0592216 4293187809
-0.024493262 0.3350189 1.05194 4293254122
-0.013374348 0.33518127 1.0519367 4294243066
0.02316549 0.33771223 1.0593913 4294835965
0.036345758 0.33722714 1.0562427 4293584878
0.045616966 0.33666933 1.0539842 4293386728
0.054571491 0.33476636 1.0559916 4291610563
0.061523601 0.33069572 1.0538393 4291871679
0.28946066 0.33163875 1.0514121 4292333509
0.29816806 0.33326769 1.0531172 4292201413
0.30644453 0.33422929 1.0528809 4292136131
0.31642956 0.33786145 1.0525286 4292202442
0.32349738 0.33392873 1.0557419 4292728014
0.335105 0.33581418 1.054354 4292004297
0.34494066 0.33305907 1.0551689 4292597974
0.35374171 0.33428109 1.0581994 4292728533
0.37500766 0.33047068 1.0590883 4293978345
0.38843393 0.33316466 1.0520548 4292728783
0.39907935 0.33491802 1.0564713 4294045421
0.41786635 0.33955467 1.0515535 4294901502
0.42736983 0.33084652 1.0502828 4294703092
0.43727621 0.33336186 1.0549406 4294769144
0.44711941 0.33548164 1.0584033 4294901502
0.47542286 0.33850974 1.058943 4294901502
0.4937878 0.3394134 1.0560352 4294901502
0.50268513 0.33732176 1.0579811 4293912802
0.51320386 0.33190846 1.0549428 4293648359
0.52349889 0.33449578 1.056731 4294901245
0.53375292 0.33694804 1.0581439 4294703866
0.54274714 0.33842659 1.0566213 4294703866
0.55674207 0.33715606 1.0521166 4294901502
0.56616056 0.33626434 1.0573194 4294901502
0.57309139 0.33557782 1.0586113 4294901502
0.58005089 0.3378166 1.053664 4294901502
0.59488046 0.33949849 1.0543294 4294901502
0.60808647 0.33499885 1.0560923 4294769658
0.61748189 0.33219004 1.0579972 4294572025
0.62803668 0.33331442 1.0561624 4294703099
0.63507044 0.33404362 1.0542717 4294901502
0.64581847 0.33397061 1.0566239 4294901246
0.65744072 0.3320722 1.0560195 4294901502
0.66667718 0.33457264 1.0592858 4294901502
0.67677152 0.33517519 1.0597714 4294901502
0.68602031 0.33513606 1.0583588 4294901502
0.69654202 0.3326799 1.0541167 4294901502
0.70590091 0.33601981 1.0583633 4294901502
0.71658999 0.33694246 1.0597719 4294901502
0.72445583 0.33594131 1.0555291 4294901502
0.73712039 0.33391953 1.0540137 4294835965
0.74600601 0.3377859 1.05832 4294901502
0.75635833 0.33838731 1.0587662 4294901502
0.76467562 0.33770692 1.0554683 4294901502
0.77401042 0.33766744 1.0540425 4294901502
0.78442001 0.33826864 1.0544798 4294901502
0.79377395 0.33822906 1.0530511 4294901502
0.80312783 0.33818948 1.0516224 4294901502
0.81245768 0.33447176 1.051082 4294901502
0.82514036 0.33168852 1.0547632 4294901502
0.83531988 0.33555084 1.0538709 4294901502
0.86034477 0.33238879 1.0557052 4294241267
0.87339759 0.33606243 1.0587839 4293518571
0.88250321 0.33791542 1.0565741 4292858584
0.89445466 0.33550784 1.0567931 4292528064
0.90573323 0.33622539 1.0530109 4290420093
-0.70487607 0.34787983 1.0517737 4292463301
-0.69418252 0.34618708 1.0502586 4292330949
-0.68523723 0.34547096 1.0514647 4292135112
-0.6759842 0.34530243 1.0533866 4291805892
-0.66734666 0.3440387 1.0538765 4292265673
-0.65840131 0.34332258 1.0550826 4292395972
-0.64701235 0.34434867 1.052562 4292134598
-0.63558406 0.3454721 1.051851 4292068294
-0.6254487 0.3461265 1.0546719 4291476147
-0.61486745 0.34745932 1.0551468 4291933346
-0.60527128 0.34420401 1.0532409 4289893480
-0.59565854 0.34360838 1.0533972 4290353777
-0.58201468 0.34305876 1.0549831 4291405427
-0.57350588 0.34274858 1.0570154 4290221688
-0.56395853 0.34435964 1.054249 4290484593
-0.55328166 0.34497881 1.0551157 4290090611
-0.54369169 0.3462595 1.0548404 4290418290
-0.5346244 0.3458952 1.0558938 4290682477
-0.52485573 0.34783691 1.0552801 4290550379
-0.5154767 0.3470583 1.0554345 4290287206
-0.50603223 0.34645948 1.055573 4289628507
-0.4963792 0.34578595 1.055236 4288971599
-0.48706463 0.34057757 1.0528095 4287655472
-0.43557757 0.3448365 1.0520287 4282067501
-0.42591581 0.34301013 1.0523567 4282987317
-0.41424856 0.34450307 1.053795 4287197537
-0.40191525 0.34627575 1.0523008 4285089595
-0.39040738 0.34437248 1.0533005 4287654235
-0.38647518 0.34631515 1.0526744 4288054400
-0.34674203 0.34796548 1.0575861 4290683519
-0.33441371 0.34939784 1.057234 4292529596
-0.32635126 0.34259894 1.0571855 4292727511
-0.31529 0.34638536 1.052596 4292860124
-0.30627307 0.34468165 1.050869 4293914099
-0.29552013 0.34478906 1.054922 4294637304
-0.28412718 0.34692419 1.0565331 4294374131
-0.2715736 0.34761989 1.0580032 4294176499
-0.26265979 0.34783328 1.0565773 4294177010
-0.2521694 0.34582639 1.0545934 4294571256
-0.24423684 0.34664074 1.0560294 4294572024
-0.2362767 0.3462508 1.0544617 4293518829
-0.22544922 0.34567025 1.0557491 4293190122
-0.21523748 0.34635663 1.0541456 4292926950
-0.20378439 0.34713396 1.0559369 4293189601
-0.19402495 0.34914798 1.0556884 4293451235
-0.1855633 0.34840193 1.0547012 4292267469
-0.17834449 0.34631792 1.0532219 4292136908
-0.16877685 0.34636483 1.0550064 4291608525
-0.15714869 0.34827387 1.0567946 4294901502
-0.14403182 0.34694934 1.0569679 4294703868
-0.13632143 0.34496304 1.053313 4294046197
-0.12650907 0.34475535 1.0547802 4293585394
-0.117963 0.34432971 1.0558116 4293453297
-0.10664099 0.34563255 1.0562885 4293190639
-0.094798505 0.34424576 1.0571697 4292795371
-0.082660303 0.34419364 1.0587376 4293059566
-0.072817385 0.34400928 1.0589275 4293651958
-0.06533809 0.34493524 1.0572562 4293783027
-0.052041177 0.34840167 1.054244 4294177012
-0.04613696 0.34615946 1.0547231 4293782259
-0.037059572 0.348028 1.0538085 4293256174
-0.026233673 0.34805462 1.0544463 4293453294
-0.012581052 0.34774446 1.057943 4293716722
-0.0036179395 0.34871116 1.0574247 4294243319
0.0060595465 0.34772187 1.0561867 4294045941
0.014496317 0.34715357 1.0580812 4293980661
0.023456391 0.34630638 1.0564089 4293782514
0.034616362 0.34602478 1.0529841 4293190378
0.044900645 0.34493762 1.0552175 4292793567
0.052460738 0.34332442 1.0506694 4291807698
0.29674008 0.34083965 1.0504662 4292136132
0.31704277 0.34820193 1.0524696 4293451235
0.32551435 0.34495261 1.0534768 4292071109
0.33430779 0.34673929 1.0556068 4293057749
0.3452436 0.34437695 1.056476 4293122780
0.35368255 0.34527633 1.0562378 4294175721
0.36585605 0.34587371 1.0551713 4294572277
0.37888822 0.34557289 1.0531625 4294572279
0.38675895 0.34349093 1.0580944 4294637816
0.39824516 0.34493455 1.0559175 4294638327
0.40718198 0.34691125 1.0542078 4294704379
0.41652593 0.34585485 1.0563198 4294704378
0.4266015 0.34429905 1.0570321 4294704123
0.4355318 0.3456274 1.0564449 4294704122
0.4447619 0.34538254 1.0564533 4294638073
0.45347467 0.3469514 1.0557609 4294638074
0.46347904 0.34640142 1.0561426 4294770171
0.47456375 0.34789667 1.0541106 4294703609
0.48248425 0.34640485 1.0533165 4294703864
0.49569559 0.34632635 1.0557047 4294571764
0.50119591 0.3445524 1.0543487 4294570990
0.51555932 0.34356743 1.0517471 4294175726
0.52743638 0.3458133 1.0566905 4293914098
0.53630722 0.34568816 1.0530702 4294638331
0.54759252 0.34716612 1.0538499 4294901502
0.55496907 0.34342968 1.0567456 4294901502
0.56662905 0.34491682 1.0549285 4294901502
0.57555968 0.34606481 1.0539745 4294901502
0.58598816 0.34675056 1.0534856 4294901502
0.59682214 0.34412196 1.0547327 4294901502
0.60770065 0.34549516 1.0555096 4294835966
0.61691332 0.34562838 1.0542877 4294835709
0.62625045 0.3420009 1.0556895 4294834939
0.63470036 0.34040451 1.0530802 4294901502
0.64382493 0.34036592 1.0516865 4294901502
0.65294957 0.34032732 1.0502927 4294901502
0.6633426 0.34128025 1.0517467 4294901502
0.67336059 0.34190246 1.0522442 4294901502
0.68385875 0.34285498 1.0536821 4294901502
0.70226079 0.34277713 1.0508713 4294901502
0.71287358 0.34372914 1.0522916 4294901502
0.7221033 0.3436901 1.0508817 4294901502
0.75233638 0.34522367 1.051333 4294901502
0.84720469 0.34161639 1.0562439 4294901502
0.85847849 0.34253654 1.0575632 4294901502
0.86980963 0.34345645 1.0588737 4294835966
0.90071446 0.34162143 1.0521545 4291407279
0.91891187 0.34099197 1.0524009 4287985735
0.92868936 0.34147307 1.0508529 4286218914
-0.49497762 0.35004362 1.0508838 4289826393
-0.38510647 0.35970575 1.0562463 4291797885
-0.37394682 0.35451445 1.0579499 4294626209
-0.36463672 0.35456055 1.0574732 4294297997
-0.35523796 0.35566878 1.0553961 4293901971
-0.34592518 0.35469717 1.0536697 4292327061
-0.33418214 0.35559174 1.0539958 4292923852
-0.32490849 0.35271391 1.0533638 4293979633
-0.31456721 0.35170394 1.0535324 4294177269
-0.30352306 0.35315222 1.0563147 4294901501
-0.29578626 0.35436642 1.0584779 4294901502
-0.28658018 0.35542089 1.0597667 4294901502
-0.27430195 0.35553926 1.0556011 4294505977
-0.26369241 0.35678384 1.0532804 4293979119
-0.25633436 0.35846958 1.055005 4293913328
-0.24844904 0.35603905 1.0570836 4293979377
-0.21489334 0.35074997 1.050747 4292794854
-0.19561757 0.35812035 1.0563338 4293847016
-0.18548238 0.35481778 1.056119 4294901501
-0.17660287 0.35516691 1.0557642 4294901502
-0.16596022 0.35376635 1.0559328 4294835965
-0.15576129 0.35352221 1.0536032 4294901502
-0.1475424 0.35447714 1.0533684 4294901502
-0.13410799 0.35402465 1.0532068 4294311164
-0.12351981 0.35457355 1.0548091 4294176753
-0.11588359 0.35633612 1.0578766 4294112756
-0.10646092 0.35567465 1.0539799 4294374902
-0.093852028 0.35625795 1.056273 4293912047
-0.083877847 0.35494214 1.0562006 4294374904
-0.073844731 0.35528716 1.0558484 4294703354
-0.065371715 0.35728517 1.0568154 4294901502
-0.054477345 0.35633454 1.0548764 4294901502
-0.04500597 0.35586756 1.0555625 4294835709
-0.035066277 0.35444194 1.0559905 4294835709
-0.024375411 0.35588863 1.0540175 4294769917
-0.015887901 0.35480896 1.0548913 4294769660
-0.0061933962 0.35374403 1.0555731 4294835453
0.0045689302 0.35475874 1.0545914 4294901502
0.014208697 0.3546063 1.0551262 4294638330
0.026593614 0.35300714 1.05445 4294572282
0.036034234 0.35159111 1.0522751 4294373877
0.044411618 0.35183069 1.0500926 4294044145
0.29518396 0.35871524 1.0515181 4292727761
0.30376408 0.35934433 1.0507374 4293777366
0.31446508 0.35363686 1.0539182 4293055700
0.32377008 0.35303625 1.0534656 4293977573
0.33539739 0.35652256 1.0567774 4294308076
0.34715897 0.35627413 1.0560279 4294242543
0.357535 0.3540464 1.052783 4294506230
0.36381155 0.3569454 1.0534921 4294506225
0.37284714 0.35741127 1.0533113 4294505457
0.38408753 0.35325086 1.0545249 4294835965
0.39339155 0.35375494 1.0530586 4294703866
0.40095076 0.35539478 1.0552601 4294901502
0.41560096 0.35693222 1.0571203 4294374128
0.42630494 0.35795856 1.056046 4294505199
0.4368906 0.35697478 1.0538076 4294901502
0.44626296 0.3557905 1.0552716 4294901502
0.45749781 0.35387969 1.0548131 4294440176
0.4669489 0.35631388 1.0576274 4294242286
0.47524136 0.35656345 1.0562556 4294176748
0.48551279 0.35243487 1.0533729 4294439923
0.49491468 0.35638413 1.0553145 4294110184
0.50721192 0.35720345 1.0534632 4293978342
0.51525348 0.35477394 1.0548301 4293187531
0.52698058 0.35416803 1.0561236 4291545029
0.53534341 0.35513967 1.0558848 4293981430
0.54798818 0.35391682 1.051036 4294901502
0.55855662 0.35563043 1.0544914 4294901502
0.56758374 0.35559225 1.0531126 4294901502
0.57728475 0.35625455 1.0536587 4294901502
0.58563805 0.35551587 1.0503548 4294901502
0.59537727 0.35617802 1.0508951 4294901502
0.87563652 0.3510823 1.0519648 4294636534
0.88509744 0.35104227 1.0505196 4294239979
0.91564012 0.35440218 1.0564995 4287784796
-0.48477006 0.36947051 1.0594183 4288776066
-0.43185061 0.36302587 1.0578116 4291602309
-0.42239946 0.36323485 1.0556123 4288441938
-0.41419977 0.36418754 1.0553782 4291209851
-0.40361121 0.36632201 1.0582064 4292919969
-0.39185858 0.36637264 1.0561079 4294102943
-0.38300034 0.36477163 1.0534731 4294825390
-0.37240401 0.36249983 1.0526448 4294099865
-0.36293492 0.36097726 1.0527164 4294097256
-0.29406258 0.36206862 1.0546001 4294901502
-0.28512248 0.36262071 1.0544819 4294901502
-0.27736399 0.36425328 1.057339 4294901502
-0.26839492 0.36480716 1.0572203 4294901502
-0.25530624 0.36599991 1.0580338 4294901502
-0.2421983 0.36719385 1.058847 4294901502
-0.23469765 0.36291215 1.0551943 4294375158
-0.22388667 0.3653039 1.0563251 4294506745
-0.21528308 0.36605942 1.0561482 4294638073
-0.20620444 0.36626756 1.0544851 4294572281
-0.19535168 0.36545596 1.0546383 4294308851
-0.18406785 0.36273542 1.0556272 4293979371
-0.17430639 0.36465338 1.0549669 4293979378
-0.16495344 0.36077049 1.0531309 4294835707
-0.15557924 0.36257386 1.0555667 4294901502
-0.14276639 0.3643021 1.0578645 4294901502
-0.13330016 0.36413711 1.0557655 4294901502
-0.12625982 0.36579838 1.0564179 4294638587
-0.11527152 0.36600524 1.0563698 4294569977
-0.10524245 0.36474991 1.0553137 4294177272
-0.094815865 0.36470723 1.0559812 4294109174
-0.08465907 0.36343923 1.0534918 4294638588
-0.074182592 0.36298728 1.0534539 4294901502
-0.063800201 0.36461851 1.0528362 4294901502
-0.054976184 0.36410108 1.053992 4294901502
-0.046660163 0.36273026 1.0523303 4294901502
-0.033287611 0.36144942 1.053883 4294901502
-0.024443632 0.36192918 1.0528002 4294901502
-0.015387472 0.36221915 1.0523224 4294901502
-0.0018380714 0.3608582 1.052705 4294901502
0.014565166 0.36078882 1.0501995 4294901502
0.30442929 0.3604697 1.0546157 4294242282
0.31265599 0.36092794 1.0534067 4294571242
0.32375738 0.36205295 1.0530771 4294505458
0.33792615 0.36232373 1.0511022 4294506483
0.37404919 0.36283144 1.0503452 4294901502
0.38427949 0.36244357 1.0533494 4294373613
0.39789116 0.36389935 1.055616 4294044387
0.40519214 0.36376354 1.0524824 4293913059
0.41350695 0.36472958 1.052245 4294110182
0.42182183 0.36569566 1.0520077 4294175973
0.43157274 0.36341769 1.0545406 4293978076
0.44515634 0.36126673 1.0559886 4293912800
0.45728469 0.36235753 1.0546663 4293978342
0.46438071 0.36222705 1.0515358 4294109925
0.47269556 0.36319312 1.0512985 4293978082
0.48452783 0.36322752 1.051586 4294242283
0.49215072 0.36036053 1.0515132 4294901502
0.50105363 0.36032286 1.0501534 4294901502
0.51076686 0.3613658 1.0517118 4294439398
0.52502185 0.36178514 1.0534782 4291148462
0.90798146 0.36258349 1.0531712 4292856789
0.91948491 0.3635608 1.0544558 4290156683
0.92903179 0.36352041 1.0529975 4279698178
-0.4834761 0.37732252 1.0561128 4287659907
-0.47635972 0.37900269 1.0589751 4285620869
-0.46739063 0.37955657 1.0588565 4285489024
-0.42033824 0.37223789 1.0556085 4294704126
-0.41328445 0.37258077 1.0550816 4294437857
-0.4041844 0.37296206 1.0539126 4294235564
-0.24918781 0.37303522 1.0517032 4294901502
-0.23134613 0.37413701 1.0514673 4294901502
-0.11378247 0.37339184 1.0554304 4294309625
-0.10392049 0.37422207 1.0518336 4294637050
-0.09534955 0.37332153 1.0557309 4294901502
-0.084430359 0.37434512 1.0568092 4294901502
-0.075001389 0.37436402 1.0538242 4294901502
-0.065089695 0.37528768 1.0563909 4294901502
-0.056945406 0.37525323 1.0551469 4294901502
-0.044539277 0.37499589 1.0527447 4294901502
-0.032512508 0.37514988 1.0514148 4294901502
-0.47387597 0.38605258 1.0536846 4285423499
-0.46495512 0.38660347 1.0535666 4287399074
-0.45603427 0.3871544 1.0534486 4285090407
-0.44568315 0.38319597 1.0568168 4288185479
-0.42983538 0.38063508 1.0554032 4294901502
-0.41979516 0.38042802 1.0532994 4294901502
-0.094701834 0.38072905 1.0538681 4294835966
-0.086624421 0.38069487 1.0526342 4294901502
-0.07489717 0.38106471 1.0518574 4294901502
0.5607962 -0.26719695 1.0664141 4292855754
0.55393124 -0.25554782 1.0657266 4293778396
0.56760323 -0.25678471 1.0629538 4290552002
0.58538705 -0.25568646 1.0627186 4292395691
0.59427893 -0.25513735 1.0626011 4288250252
0.56613153 -0.246388 1.0669235 4292791506
0.57594121 -0.24733455 1.0625144 4290882751
0.58483309 -0.24678543 1.0623969 4290749894
0.59262961 -0.24563831 1.0602678 4288382100
0.61422002 -0.24599363 1.0669799 4290886069
0.62678671 -0.24507514 1.0615263 4289560729
0.63417506 -0.24589542 1.0621308 4288585897
0.52996206 -0.2310269 1.0602206 4282860396
0.57801074 -0.23554233 1.0675615 4292923596
0.58615041 -0.23456952 1.0659354 4290684074
0.60206294 -0.23678616 1.0618398 4287262090
0.61760497 -0.23568444 1.0629909 4288118685
0.62761205 -0.23735245 1.0653321 4287725982
0.63673657 -0.23829366 1.0665665 4286476161
0.64305627 -0.23666371 1.0610397 4286344060
0.44900975 -0.22776 1.0611821 4279307016
0.45868471 -0.22776999 1.063078 4279372310
0.49241328 -0.22032821 1.0607656 4279570187
0.50195515 -0.22088507 1.0613281 4279570451
0.51265633 -0.22253144 1.0659548 4279371783
0.52176178 -0.22256996 1.064564 4278979354
0.59588987 -0.22576308 1.0680063 4286870650
0.60428834 -0.224931 1.0668828 4284566881
0.62865627 -0.22877756 1.0675287 4285948007
0.63683629 -0.22578508 1.0640161 4283844958
0.64668977 -0.22501034 1.0671916 4281150778
0.65440035 -0.22414526 1.0641232 4282135623
0.66215372 -0.2278567 1.0613 4286083200
0.67123485 -0.22770849 1.0606885 4286807169
0.40354124 -0.21273619 1.0611268 4279767567
0.41311735 -0.21271351 1.0630225 4279111177
0.42200923 -0.2121644 1.062905 4279570182
0.43534708 -0.21134073 1.0627284 4279897103
0.44857097 -0.21469766 1.0617065 4279176461
0.45821068 -0.21374126 1.0655468 4279569166
0.46602464 -0.21678093 1.0630515 4279765776
0.47634569 -0.21328081 1.0654479 4279634963
0.48480648 -0.21722162 1.0624034 4279242252
0.49295589 -0.21168101 1.0627636 4279832332
0.50359809 -0.2132671 1.0673997 4279701262
0.52319169 -0.21459281 1.0694567 4279437320
0.62848806 -0.2174857 1.0632633 4279766048
0.63854682 -0.2180441 1.0648354 4280560700
0.64902365 -0.21126562 1.0694836 4278846733
0.65554619 -0.21113415 1.06585 4278913289
0.66418958 -0.21528427 1.0644972 4279176986
0.67330945 -0.21514511 1.0638835 4280558113
0.68183291 -0.21471995 1.0622904 4281346613
0.3852433 -0.20495032 1.0610404 4279635232
0.3941159 -0.2044024 1.0609231 4279963150
0.40298849 -0.20385447 1.0608057 4279636236
0.4136169 -0.20457143 1.0657194 4280225032
0.42547482 -0.20229515 1.0656072 4279833104
0.43464082 -0.20437798 1.0651195 4279963925
0.44395524 -0.20227316 1.066103 4279767058
0.45639852 -0.20188259 1.0663884 4280029709
0.46542564 -0.20192076 1.0650095 4279767828
0.48553929 -0.20909418 1.0650983 4279372046
0.52323365 -0.20147221 1.0640814 4279110665
0.53257722 -0.20597224 1.0642066 4280887348
0.54427344 -0.20706552 1.0626522 4289965235
0.55936545 -0.20088254 1.0616484 4292992224
0.62966442 -0.20918292 1.0679295 4279633687
0.63902807 -0.20872216 1.0664469 4278848013
0.64733422 -0.20757931 1.0620753 4278846989
0.65797448 -0.20498145 1.0651226 4278780683
0.6685645 -0.2010137 1.0665666 4278716165
0.67549884 -0.2025075 1.0672677 4278912263
0.68465906 -0.20235801 1.0666509 4278846724
0.36722857 -0.19169761 1.0628903 4279044112
0.37644187 -0.19710793 1.0628494 4280618762
0.38533378 -0.19655882 1.0627317 4280028181
0.39594114 -0.19670422 1.0644131 4279175689
0.40589219 -0.1956163 1.0636878 4279569416
0.41642666 -0.19443586 1.065376 4279439118
0.42743933 -0.19341034 1.0678761 4279635723
0.43839112 -0.19265977 1.0691997 4280293396
0.46623865 -0.19154547 1.0603045 4279503882
0.47597116 -0.19190069 1.0616844 4279307022
0.48495591 -0.19175406 1.0610793 4279176460
0.49394062 -0.19160743 1.0604743 4279241236
0.50416279 -0.19221164 1.0628388 4279634958
0.51402068 -0.1925648 1.0642103 4279110151
0.52479923 -0.19174856 1.0640705 4278979336
0.53700686 -0.19190641 1.0651352 4287994016
0.63956219 -0.19988403 1.0691752 4278716167
0.64895445 -0.19942187 1.0676881 4278846469
0.6581347 -0.19420516 1.0662142 4278716420
0.66511256 -0.19378714 1.0661331 4278715911
0.67665911 -0.19093099 1.0623626 4278912522
0.6859653 -0.19097036 1.0609411 4278978317
0.22623076 -0.18287514 1.0624026 4278518787
0.23519164 -0.18005222 1.0655798 4278453257
0.24324188 -0.18236652 1.0648248 4278715398
0.25501615 -0.18515888 1.0675219 4278650377
0.26595804 -0.18352564 1.0670403 4278715652
0.27331558 -0.18262179 1.0674285 4278715914
0.31260425 -0.18268856 1.061016 4279898914
0.32147685 -0.18214065 1.0608987 4279703063
0.3331857 -0.18319899 1.0634615 4279373071
0.34572855 -0.18587498 1.0625963 4279241743
0.35884178 -0.18755513 1.0646443 4279700748
0.36783117 -0.18515168 1.0666711 4279438860
0.3752988 -0.18528488 1.0653002 4279504141
0.38361493 -0.18655582 1.0646834 4279372810
0.39412546 -0.18760078 1.0636647 4279241997
0.40911853 -0.18876611 1.0678897 4278913795
0.41794136 -0.18845072 1.0699095 4279044357
0.43985316 -0.18348074 1.0636275 4279307785
0.44812906 -0.18285099 1.0610361 4279504392
0.45782262 -0.18318748 1.0624175 4279241744
0.46518838 -0.18247284 1.0613668 4279702031
0.47694215 -0.1836175 1.0641813 4279372305
0.48449743 -0.18279232 1.0632863 4279636241
0.49778789 -0.18500875 1.0698973 4279240971
0.50385612 -0.18300474 1.0646977 4279701523
0.51168919 -0.18234029 1.0665371 4280227869
0.52155268 -0.18250184 1.0680296 4279569926
0.53076375 -0.1820486 1.0665712 4278321443
0.54444301 -0.18126768 1.0638963 4293057504
0.55365628 -0.18483901 1.0691864 4293518052
0.66884166 -0.18369147 1.068053 4278781453
0.67717588 -0.18522704 1.063664 4278781449
0.68601364 -0.18154123 1.0609963 4278781444
0.1855787 -0.17242801 1.0652461 4278518530
0.19614813 -0.17081176 1.0648446 4278649352
0.20508884 -0.1757497 1.0607315 4278518533
0.21563888 -0.17484978 1.0630469 4278584068
0.22628812 -0.17420675 1.0664216 4278518532
0.23348026 -0.17329735 1.0668433 4278453260
0.24971381 -0.17910536 1.0696517 4278780682
0.25697473 -0.17762776 1.0678897 4278519304
0.28543368 -0.17545064 1.061047 4279635735
0.293405 -0.17529863 1.0608821 4279307788
0.30431166 -0.17468075 1.061965 4279111434
0.31634501 -0.17456338 1.0618222 4279307276
0.32521418 -0.1763873 1.0629506 4279373324
0.33441544 -0.1736795 1.0668176 4279373328
0.34283996 -0.17535336 1.0666393 4279373069
0.35259989 -0.1754847 1.0680212 4279241742
0.36629152 -0.1768266 1.0681581 4279438602
0.37444887 -0.17293227 1.0647231 4279636497
0.39347798 -0.17384994 1.067235 4279701778
0.40373516 -0.17506079 1.0655707 4279569937
0.43068933 -0.17462091 1.0637556 4280027661
0.44497463 -0.17439048 1.0640347 4279766801
0.45946291 -0.17533973 1.0669011 4279438865
0.46660829 -0.17460072 1.0665009 4279832846
0.47304499 -0.17326152 1.0642751 4279900690
0.48271629 -0.17340346 1.0657973 4280292634
0.4922469 -0.17334639 1.0663239 4280161813
0.50202304 -0.17348316 1.0678295 4280162578
0.51185644 -0.17361712 1.069326 4280161554
0.52152056 -0.17355347 1.0698316 4279504399
0.54997629 -0.17277111 1.0683794 4285820821
0.67710829 -0.17484613 1.0658789 4278846734
0.68689597 -0.1758261 1.0635884 4278716168
0.69671434 -0.17275766 1.0624554 4278781703
0.15801252 -0.16116568 1.0617796 4278518532
0.16451173 -0.16132922 1.0666728 4278518277
0.17249547 -0.16334075 1.0648437 4278518274
0.18392678 -0.16506633 1.0638032 4278518277
0.19419341 -0.1649083 1.0694125 4278649605
0.20228454 -0.16667968 1.066484 4278584067
0.21386631 -0.16840896 1.0654128 4278453253
0.22338696 -0.16447979 1.0644567 4278650118
0.2356835 -0.16090775 1.0620568 4278979088
0.24918562 -0.16029042 1.062887 4279241482
0.25614229 -0.16411257 1.0614709 4279044364
0.26729959 -0.1634002 1.0627393 4279175944
0.27580911 -0.16488512 1.0624125 4279242254
0.28422871 -0.16610874 1.0631229 4279110409
0.29451272 -0.16566072 1.0638791 4279306763
0.30434671 -0.16256686 1.0686976 4279241484
0.31660581 -0.16616167 1.0677884 4279044620
0.32730681 -0.16595909 1.0677881 4279110666
0.33397031 -0.16575763 1.0694399 4279568652
0.35682911 -0.16522083 1.061128 4280160272
0.36574635 -0.1650753 1.0605276 4279831566
0.37521738 -0.16537674 1.061922 4279570703
0.38501352 -0.16590092 1.0643104 4280159761
0.39457133 -0.16620097 1.0656989 4279701017
0.40447354 -0.16672337 1.0680802 4280029197
0.41509002 -0.16567683 1.0650277 4279570707
0.42410132 -0.16538164 1.064011 4279898386
0.43543968 -0.16487545 1.0649053 4280029475
0.44524682 -0.16537413 1.0684404 4279834143
0.454353 -0.16492605 1.0669986 4280162074
0.49235696 -0.16462603 1.0691218 4280227618
0.6875186 -0.16437635 1.0656719 4278846985
0.6967628 -0.16329949 1.0625108 4278846728
0.7060976 -0.16333897 1.061085 4278912264
0.024566567 -0.15306646 1.0619911 4278715395
0.085339732 -0.15035357 1.0602988 4278519047
0.12718263 -0.15129818 1.0613025 4278584072
0.13391984 -0.15038331 1.0618176 4278649604
0.14582762 -0.15602589 1.0629065 4278649605
0.15592825 -0.15504089 1.0653005 4278649605
0.16273266 -0.15436986 1.0668793 4278452997
0.17765477 -0.15560335 1.066065 4278321925
0.18452531 -0.15517145 1.0687071 4278518276
0.19512582 -0.15374753 1.0693681 4278452994
0.20673999 -0.15350766 1.0607553 4278519048
0.21513602 -0.15277363 1.0605836 4278650631
0.22382346 -0.15247503 1.0624406 4278978056
0.23316897 -0.15432192 1.0633246 4278716423
0.24306218 -0.15442117 1.0629783 4278847495
0.25527185 -0.15439102 1.0650313 4278781706
0.26693755 -0.15516886 1.0657117 4278847239
0.27553737 -0.15530995 1.0677145 4278847502
0.28395325 -0.15505943 1.0679359 4278847498
0.29299921 -0.15461482 1.0685275 4278979078
0.32511279 -0.1564692 1.0612552 4279701263
0.33881691 -0.15657309 1.0618557 4279635471
0.34822971 -0.15685612 1.0632529 4279701017
0.3579385 -0.15735273 1.0656457 4279767051
0.36690393 -0.15720642 1.065042 4279898894
0.37642279 -0.15748775 1.066432 4279636241
0.38749903 -0.1570231 1.0652524 4279569930
0.39658803 -0.15691066 1.0652407 4279439121
0.40589067 -0.15682951 1.0652213 4279504911
0.41645959 -0.15600562 1.0644201 4279374355
0.42590407 -0.15613788 1.0661802 4279702294
0.43566102 -0.15659058 1.0697221 4279899153
0.69550735 -0.15037146 1.0643893 4278650891
0.7070629 -0.15424627 1.0630212 4278716687
